ply
format ascii 1.0
element vertex 854
property float x
property float y
property float z
end_header
10.58919906616211 -0.28154295682907104 -2.239133596420288
10.577031135559082 0.5802148580551147 -2.239133596420288
10.544687271118164 1.0099999904632568 -2.239133596420288
8.094404220581055 -5.024921894073486 -2.239133596420288
9.069043159484863 -2.919257640838623 -2.239133596420288
9.180282592773438 -2.547919750213623 -2.239133596420288
9.276328086853027 -2.172353506088257 -2.239133596420288
9.35702133178711 -1.7932031154632568 -2.239133596420288
9.5129976272583 0.5218456983566284 -2.239133596420288
7.526875019073486 -4.258515357971191 -2.239133596420288
7.989413738250732 -3.3102734088897705 -2.239133596420288
8.232069969177246 -2.649833917617798 -2.239133596420288
8.3330659866333 -2.3127832412719727 -2.239133596420288
8.420244216918945 -1.9718749523162842 -2.239133596420288
8.552675247192383 -1.280849575996399 -2.239133596420288
8.644999504089355 -0.22985351085662842 -2.239133596420288
8.647196769714355 0.1220117136836052 -2.239133596420288
8.6350679397583 0.47368162870407104 -2.239133596420288
6.719951152801514 -4.171669960021973 -2.239133596420288
6.884111404418945 -3.894853353500366 -2.239133596420288
7.036835670471191 -3.611582040786743 -2.239133596420288
7.424267292022705 -2.727841854095459 -2.239133596420288
7.621445178985596 -2.1152734756469727 -2.239133596420288
7.768173694610596 -1.488710880279541 -2.239133596420288
7.822304725646973 -1.171474575996399 -2.239133596420288
7.863476276397705 -0.8522851467132568 -2.239133596420288
7.891640663146973 -0.531689465045929 -2.239133596420288
7.908759593963623 0.11158202588558197 -2.239133596420288
7.873505592346191 0.7541406154632568 -2.239133596420288
6.185009479522705 -3.839589834213257 -2.239133596420288
6.476659774780273 -3.3240721225738525 -2.239133596420288
6.606523513793945 -3.057861328125 -2.239133596420288
6.725439071655273 -2.786562442779541 -2.239133596420288
7.088115215301514 -1.6599218845367432 -2.239133596420288
7.199589729309082 -1.0782030820846558 -2.239133596420288
7.263408184051514 -0.48936522006988525 -2.239133596420288
7.279150009155273 0.10270507633686066 -2.239133596420288
7.268954753875732 0.3987402319908142 -2.239133596420288
5.723056316375732 -3.552812337875366 -2.239133596420288
5.86282205581665 -3.3170409202575684 -2.239133596420288
6.113095760345459 -2.829472541809082 -2.239133596420288
6.412128925323486 -2.064013719558716 -2.239133596420288
6.558701038360596 -1.5359374284744263 -2.239133596420288
6.661865234375 -0.9976757764816284 -2.239133596420288
6.696943283081055 -0.7258593440055847 -2.239133596420288
6.720908164978027 -0.4528222680091858 -2.239133596420288
6.735487937927246 0.09502929449081421 -2.239133596420288
6.726035118103027 0.368964821100235 -2.239133596420288
6.705468654632568 0.6422656178474426 -2.239133596420288
5.570576190948486 -2.8590331077575684 -2.239133596420288
5.682275295257568 -2.630068302154541 -2.239133596420288
5.960244178771973 -1.918554663658142 -2.239133596420288
6.033378601074219 -1.6745214462280273 -2.239133596420288
6.096484184265137 -1.4276854991912842 -2.239133596420288
6.14953088760376 -1.178505778312683 -2.239133596420288
6.192372798919678 -0.9273730516433716 -2.239133596420288
6.247265338897705 -0.4208984375 -2.239133596420288
6.259218692779541 -0.16642577946186066 -2.239133596420288
6.260810375213623 0.0883496105670929 -2.239133596420288
5.085468769073486 -2.8772363662719727 -2.239133596420288
5.39797830581665 -2.2365527153015137 -2.239133596420288
5.689072132110596 -1.332275390625 -2.239133596420288
5.842382907867432 0.08244140446186066 -2.239133596420288
5.816347599029541 0.5571093559265137 -2.239133596420288
4.648154258728027 -2.8855175971984863 -2.239133596420288
4.867343425750732 -2.498115062713623 -2.239133596420288
4.964931488037109 -2.298037052154541 -2.239133596420288
5.054316520690918 -2.094169855117798 -2.239133596420288
5.207831859588623 -1.676367163658142 -2.239133596420288
5.271698951721191 -1.4631249904632568 -2.239133596420288
5.373202800750732 -1.0297362804412842 -2.239133596420288
5.41064453125 -0.810302734375 -2.239133596420288
5.469052791595459 -0.14541015028953552 -2.239133596420288
5.470429420471191 0.07719726115465164 -2.239133596420288
5.462753772735596 0.29966795444488525 -2.239133596420288
5.446044921875 0.5216308236122131 -2.239133596420288
4.365077972412109 -2.709784984588623 -2.239133596420288
4.662558555603027 -2.158076047897339 -2.239133596420288
4.822558403015137 -1.7719042301177979 -2.239133596420288
4.950654029846191 -1.3740136623382568 -2.239133596420288
5.081132888793945 -0.7609570026397705 -2.239133596420288
5.126171588897705 -0.34538084268569946 -2.239133596420288
5.130068302154541 0.28141599893569946 -2.239133596420288
5.114365100860596 0.4898730218410492 -2.239133596420288
4.109814167022705 -2.551328182220459 -2.239133596420288
4.210195064544678 -2.382021427154541 -2.239133596420288
4.303622722625732 -2.208789110183716 -2.239133596420288
4.468935489654541 -1.8516210317611694 -2.239133596420288
4.540546894073486 -1.6682909727096558 -2.239133596420288
4.604677677154541 -1.482216715812683 -2.239133596420288
4.661152362823486 -1.2936620712280273 -2.239133596420288
4.709931373596191 -1.1029882431030273 -2.239133596420288
4.784003734588623 -0.71644526720047 -2.239133596420288
4.809189319610596 -0.5212500095367432 -2.239133596420288
4.835624694824219 -0.12856444716453552 -2.239133596420288
4.836864948272705 0.06825195252895355 -2.239133596420288
4.830078125 0.2649609446525574 -2.239133596420288
4.815312385559082 0.4612206816673279 -2.239133596420288
3.878242015838623 -2.4075682163238525 -2.239133596420288
3.972978353500366 -2.247812509536743 -2.239133596420288
4.217128753662109 -1.7473046779632568 -2.239133596420288
4.345224380493164 -1.3986914157867432 -2.239133596420288
4.398525238037109 -1.2207812070846558 -2.239133596420288
4.444550514221191 -1.0408300161361694 -2.239133596420288
4.483202934265137 -0.8591699004173279 -2.239133596420288
4.554452896118164 -0.30684569478034973 -2.239133596420288
4.564335823059082 0.0643945261836052 -2.239133596420288
3.756591796875 -2.125380754470825 -2.239133596420288
3.916923761367798 -1.8129589557647705 -2.239133596420288
3.987441301345825 -1.65212881565094 -2.239133596420288
4.051347732543945 -1.48855459690094 -2.239133596420288
4.158945083618164 -1.1542870998382568 -2.239133596420288
4.202470779418945 -0.9841503500938416 -2.239133596420288
4.239003658294678 -0.8123632669448853 -2.239133596420288
4.291015625 -0.46507811546325684 -2.239133596420288
4.306396484375 -0.2901367247104645 -2.239133596420288
4.296484470367432 0.4115332067012787 -2.239133596420288
3.4733691215515137 -2.1562206745147705 -2.239133596420288
3.5581932067871094 -2.013134717941284 -2.239133596420288
3.637148380279541 -1.866738200187683 -2.239133596420288
3.837392568588257 -1.40994131565094 -2.239133596420288
3.9393162727355957 -1.0933202505111694 -2.239133596420288
4.064414024353027 -0.4405175745487213 -2.239133596420288
4.078974723815918 -0.2748144567012787 -2.239133596420288
4.086767673492432 -0.10865233838558197 -2.239133596420288
4.082099437713623 0.22391600906848907 -2.239133596420288
4.069589614868164 0.3898046910762787 -2.239133596420288
3.2950096130371094 -2.0454978942871094 -2.239133596420288
3.37548828125 -1.909765601158142 -2.239133596420288
3.5829296112060547 -1.484521508216858 -2.239133596420288
3.776123046875 -0.8842968344688416 -2.239133596420288
3.808964729309082 -0.7299511432647705 -2.239133596420288
3.835527181625366 -0.5744042992591858 -2.239133596420288
3.869521379470825 -0.26070311665534973 -2.239133596420288
3.8769237995147705 -0.10307616740465164 -2.239133596420288
37.273006439208984 6.612050533294678 6.674844264984131
33.40714645385742 7.293710708618164 6.029332637786865
20.378154754638672 7.050976276397705 3.802232027053833
19.770145416259766 7.725009441375732 3.742680072784424
17.020429611206055 8.248496055603027 3.3350164890289307
14.09512710571289 8.259394645690918 2.880615711212158
10.518486022949219 7.966386318206787 2.3265929222106934
8.839726448059082 8.509394645690918 2.1635239124298096
8.281962394714355 8.626054763793945 2.1085622310638428
7.652519226074219 8.626073837280273 2.033273935317993
5.039482116699219 8.626073837280273 1.76155424118042
37.007694244384766 6.564980506896973 5.75788688659668
33.40714645385742 7.293691158294678 5.238341331481934
15.460322380065918 8.259413719177246 2.685228109359741
14.09512710571289 8.259394645690918 2.5027029514312744
12.930097579956055 8.277373313903809 2.3519341945648193
11.996533393859863 8.363495826721191 2.240333318710327
10.004286766052246 8.216415405273438 1.9832345247268677
8.839726448059082 8.509394645690918 1.8796817064285278
8.281962394714355 8.626073837280273 1.8319334983825684
7.652519226074219 8.626054763793945 1.7665252685546875
6.970029354095459 8.509394645690918 1.6850789785385132
5.915839672088623 8.509394645690918 1.5876662731170654
27.93144416809082 7.261366844177246 3.758152961730957
27.45683479309082 8.305038452148438 3.7354376316070557
19.849178314208984 7.75588846206665 2.7750885486602783
17.042949676513672 8.259413719177246 2.4662346839904785
12.93008804321289 8.277382850646973 1.9992281198501587
10.518476486206055 7.966386318206787 1.7182326316833496
8.839706420898438 8.509413719177246 1.59779691696167
8.281962394714355 8.626073837280273 1.5572106838226318
7.652519226074219 8.626054763793945 1.5016106367111206
5.915839672088623 8.509394645690918 1.3495712280273438
5.506171703338623 8.626073837280273 1.332633376121521
5.039501667022705 8.626073837280273 1.3009411096572876
41.751426696777344 5.721230506896973 4.525237560272217
20.378154754638672 7.050976276397705 2.3155293464660645
17.042987823486328 8.259413719177246 2.033691644668579
15.570751190185547 8.318398475646973 1.8956518173217773
12.930097579956055 8.277392387390137 1.6485891342163086
12.014570236206055 8.376044273376465 1.572723627090454
10.00430679321289 8.216425895690918 1.3901504278182983
8.839726448059082 8.509394645690918 1.3175671100616455
8.281962394714355 8.626073837280273 1.2840969562530518
6.427236080169678 8.509404182434082 1.1451119184494019
5.506171703338623 8.626073837280273 1.0989047288894653
5.039492130279541 8.626073837280273 1.0727721452713013
28.022050857543945 7.284921646118164 2.4509942531585693
18.905790328979492 8.259443283081055 1.7464861869812012
15.570751190185547 8.318398475646973 1.4944063425064087
12.930097579956055 8.277392387390137 1.2996398210525513
12.01456069946289 8.376054763793945 1.2398302555084229
10.004286766052246 8.216415405273438 1.0959036350250244
9.566659927368164 8.509394645690918 1.0838568210601807
8.839726448059082 8.509394645690918 1.0386812686920166
7.641366958618164 8.613486289978027 0.9747323393821716
6.970029354095459 8.509394645690918 0.9311477541923523
5.915839672088623 8.509394645690918 0.8773199319839478
37.007713317871094 6.564960956573486 2.330688238143921
33.03784942626953 7.213085651397705 2.0969464778900146
19.780380249023438 7.729013442993164 1.3168994188308716
17.042987823486328 8.25942325592041 1.1744064092636108
12.930097579956055 8.277373313903809 0.9520187377929688
10.518486022949219 7.966386318206787 0.8182119727134705
8.11874008178711 8.456064224243164 0.7269219756126404
5.915839672088623 8.509394645690918 0.6426586508750916
4.971327781677246 8.509404182434082 0.6111215353012085
42.00415802001953 5.755859375 1.6717449426651
33.316795349121094 7.274003505706787 1.3446612358093262
28.032987594604492 7.287773132324219 1.142112135887146
27.467538833618164 8.308280944824219 1.131535291671753
20.39249038696289 7.05593729019165 0.8508697152137756
18.7578125 8.194794654846191 0.8071429133415222
12.901982307434082 8.259384155273438 0.6040524244308472
10.518476486206055 7.966396331787109 0.5202828645706177
10.004286766052246 8.216415405273438 0.5104687213897705
8.169951438903809 8.509404182434082 0.4651492238044739
7.549023151397705 8.509394645690918 0.4485412538051605
4.971327781677246 8.509404182434082 0.38859954476356506
42.0041389465332 5.755859375 0.7161550521850586
33.316856384277344 7.273984432220459 0.5760369896888733
28.032987594604492 7.287773132324219 0.48926788568496704
20.39249038696289 7.05593729019165 0.36450284719467163
16.438426971435547 7.966435432434082 0.30856382846832275
13.59512710571289 7.966405868530273 0.2661682069301605
10.518486022949219 7.966386318206787 0.22288298606872559
10.004286766052246 8.216415405273438 0.21867889165878296
8.535361289978027 8.216435432434082 0.20012511312961578
7.888652324676514 8.216425895690918 0.1924038678407669
7.289101600646973 8.216425895690918 0.18553435802459717
6.205946922302246 8.216415405273438 0.17393095791339874
5.244697093963623 8.216415405273438 0.1646551489830017
4.800175666809082 8.216415405273438 0.16074004769325256
27.88554573059082 7.249433517456055 -0.16221939027309418
27.467538833618164 8.308280944824219 -0.16156813502311707
20.39249038696289 7.05593729019165 -0.12149368226528168
19.85928726196289 7.759843349456787 -0.12004440277814865
16.43840789794922 7.966444969177246 -0.1028466746211052
14.911913871765137 7.966415882110596 -0.09518783539533615
11.426953315734863 7.966415882110596 -0.07842666655778885
7.289101600646973 8.216425895690918 -0.06183837726712227
6.730048656463623 8.216415405273438 -0.05979675054550171
6.205946922302246 8.216435432434082 -0.057971496134996414
5.244697093963623 8.216415405273438 -0.05488021671772003
4.800175666809082 8.216415405273438 -0.05357513204216957
37.1271858215332 6.586171627044678 -1.0617388486862183
20.39249038696289 7.05593729019165 -0.6076072454452515
15.460322380065918 8.259413719177246 -0.49355193972587585
14.095136642456055 8.259404182434082 -0.4600067138671875
12.901982307434082 8.259394645690918 -0.43135467171669006
10.194403648376465 8.372549057006836 -0.37145277857780457
9.566659927368164 8.509413719177246 -0.36051878333091736
8.169951438903809 8.509384155273438 -0.3321630656719208
6.427236080169678 8.509404182434082 -0.3002714514732361
5.915839672088623 8.509394645690918 -0.2918190062046051
5.431708812713623 8.509404182434082 -0.28425827622413635
41.44314193725586 5.67898416519165 -2.121399164199829
20.032461166381836 5.207861423492432 -1.0497006177902222
19.731884002685547 7.710038661956787 -1.0743669271469116
15.460322380065918 8.259413719177246 -0.888927161693573
12.901991844177246 8.259384155273438 -0.7769030332565308
10.905322074890137 8.25936508178711 -0.693772554397583
10.194403648376465 8.372549057006836 -0.669016420841217
8.169951438903809 8.509384155273438 -0.5982516407966614
6.970029354095459 8.509394645690918 -0.5578358173370361
6.427236080169678 8.509404182434082 -0.5408121943473816
5.431708812713623 8.509394645690918 -0.511971116065979
18.473447799682617 3.277099609375 -1.375659704208374
18.187196731567383 3.970771312713623 -1.3649357557296753
23.308866500854492 7.050390243530273 -1.785529613494873
19.859277725219727 7.759824275970459 -1.563338279724121
18.905790328979492 8.259443283081055 -1.5127248764038086
15.460341453552246 8.259413719177246 -1.2852041721343994
10.194403648376465 8.372549057006836 -0.967255711555481
9.566659927368164 8.509413719177246 -0.9387835264205933
8.839726448059082 8.509394645690918 -0.8996554613113403
8.169951438903809 8.509404182434082 -0.8649459481239319
7.549023151397705 8.509394645690918 -0.8340612649917603
5.915839672088623 8.509394645690918 -0.7598925828933716
5.431708812713623 8.509404182434082 -0.7402024865150452
21.892187118530273 2.9999022483825684 -2.121399164199829
20.39249038696289 7.05593729019165 -2.071662664413452
18.905790328979492 8.259443283081055 -1.980700969696045
14.095107078552246 8.259413719177246 -1.5684008598327637
12.901982307434082 8.259384155273438 -1.4707227945327759
10.905322074890137 8.259384155273438 -1.3133525848388672
10.194403648376465 8.372529029846191 -1.2664854526519775
6.970029354095459 8.509394645690918 -1.056016206741333
5.915839672088623 8.509394645690918 -0.9949670433998108
17.693662643432617 2.424570322036743 -2.121399164199829
17.447998046875 3.809394359588623 -2.121399164199829
17.094141006469727 5.170556545257568 -2.121399164199829
16.87728500366211 5.839658260345459 -2.121399164199829
17.011337280273438 6.647040843963623 -2.1694891452789307
16.73641586303711 7.311718463897705 -2.1694891452789307
14.09512710571289 8.259394645690918 -1.9405770301818848
12.901982307434082 8.259384155273438 -1.8197084665298462
11.810234069824219 8.233603477478027 -1.710162878036499
10.905322074890137 8.25936508178711 -1.6249959468841553
10.194403648376465 8.372549057006836 -1.567008137702942
9.566659927368164 8.509394645690918 -1.5208810567855835
8.169951438903809 8.509384155273438 -1.4012603759765625
7.549023151397705 8.509413719177246 -1.3512256145477295
5.915839672088623 8.509394645690918 -1.2310630083084106
5.431708812713623 8.509394645690918 -1.1991685628890991
14.833574295043945 2.032656192779541 -2.121399164199829
14.627616882324219 3.1936328411102295 -2.121399164199829
14.490507125854492 3.7671384811401367 -2.121399164199829
14.33095645904541 4.334794998168945 -2.121399164199829
13.945409774780273 5.449042797088623 -2.121399164199829
13.5051851272583 7.214902400970459 -2.1694891452789307
12.8955659866333 8.25528335571289 -2.1694891452789307
10.905341148376465 8.259374618530273 -1.9383177757263184
10.194403648376465 8.372549057006836 -1.8691468238830566
8.839726448059082 8.509394645690918 -1.73851478099823
8.169951438903809 8.509384155273438 -1.6714407205581665
7.549023151397705 8.509413719177246 -1.6117589473724365
6.427236080169678 8.509404182434082 -1.5109628438949585
5.431708812713623 8.509404182434082 -1.4303839206695557
4.971327781677246 8.509404182434082 -1.396369457244873
13.37808609008789 1.8332030773162842 -2.2244889736175537
12.679365158081055 2.249257802963257 -2.121399164199829
12.580976486206055 2.746777296066284 -2.121399164199829
12.46304702758789 3.2400293350219727 -2.121399164199829
12.325800895690918 3.7282519340515137 -2.121399164199829
11.9941987991333 4.686630725860596 -2.121399164199829
11.362226486206055 6.657978534698486 -2.1694891452789307
10.803056716918945 7.531445026397705 -2.1694891452789307
9.566659927368164 8.509413719177246 -2.1092474460601807
8.839726448059082 8.509394645690918 -2.0213351249694824
8.169951438903809 8.509384155273438 -1.9433491230010986
7.549023151397705 8.509394645690918 -1.8739585876464844
6.970029354095459 8.509394645690918 -1.812064290046692
6.427236080169678 8.509404182434082 -1.7567673921585083
5.915839672088623 8.509394645690918 -1.7073094844818115
5.431708812713623 8.509404182434082 -1.663077473640442
4.971327781677246 8.509404182434082 -1.6235302686691284
11.112899780273438 1.9713671207427979 -2.121399164199829
10.342490196228027 4.518359184265137 -2.121399164199829
9.954862594604492 5.318212985992432 -2.121399164199829
9.720975875854492 6.22301721572876 -2.1694891452789307
9.468398094177246 6.600966453552246 -2.1694891452789307
9.201132774353027 6.968681335449219 -2.1694891452789307
8.919609069824219 7.325566291809082 -2.1694891452789307
7.993847370147705 8.325976371765137 -2.1694891452789307
6.970029354095459 8.509394645690918 -2.067492723464966
4.971327781677246 8.509404182434082 -1.8523832559585571
10.3618745803833 1.8381541967391968 -2.2244889736175537
9.804999351501465 2.140702962875366 -2.121399164199829
9.347704887390137 3.652529239654541 -2.121399164199829
9.196640014648438 4.017773151397705 -2.121399164199829
9.031289100646973 4.376777172088623 -2.121399164199829
8.452372550964355 5.410908222198486 -2.121399164199829
8.23275375366211 5.73953104019165 -2.121399164199829
7.108193397521973 7.403525352478027 -2.1694891452789307
6.811161994934082 7.677685260772705 -2.1694891452789307
6.503573894500732 7.939911842346191 -2.1694891452789307
6.185859203338623 8.18985366821289 -2.1694891452789307
4.971327781677246 8.509404182434082 -2.0831806659698486
9.37735366821289 1.2849901914596558 -2.2244889736175537
9.319472312927246 1.6532421112060547 -2.2244889736175537
8.888642311096191 1.9406249523162842 -2.138241767883301
8.53017520904541 2.9515037536621094 -2.121399164199829
8.271445274353027 3.61358380317688 -2.121399164199829
8.122754096984863 3.9364843368530273 -2.121399164199829
7.96145486831665 4.253271579742432 -2.121399164199829
7.404550552368164 5.16213846206665 -2.121399164199829
6.97537088394165 5.728798866271973 -2.121399164199829
6.897284984588623 6.135009765625 -2.1694891452789307
4.966708660125732 7.780917644500732 -2.1694891452789307
4.656464576721191 7.970448970794678 -2.1694891452789307
8.511933326721191 1.166416049003601 -2.2244889736175537
8.459413528442383 1.5006639957427979 -2.2244889736175537
8.393759727478027 1.8325976133346558 -2.2244889736175537
7.929746150970459 2.061513662338257 -2.121399164199829
7.742939472198486 2.6791014671325684 -2.121399164199829
7.631444931030273 2.9819042682647705 -2.121399164199829
7.508105278015137 3.280097484588623 -2.121399164199829
7.373124599456787 3.573193311691284 -2.121399164199829
7.226718425750732 3.860732316970825 -2.121399164199829
7.069081783294678 4.142314434051514 -2.121399164199829
6.721200942993164 4.685741901397705 -2.121399164199829
6.331640720367432 5.200097560882568 -2.121399164199829
6.121953010559082 5.445390701293945 -2.121399164199829
5.902802467346191 5.682226657867432 -2.121399164199829
5.560634613037109 6.268036842346191 -2.1694891452789307
5.309492111206055 6.482138633728027 -2.1694891452789307
4.508339881896973 7.062831878662109 -2.1694891452789307
7.737001895904541 1.3725097179412842 -2.2244889736175537
7.676952838897705 1.6761034727096558 -2.2244889736175537
7.435312271118164 1.9329687356948853 -2.174851894378662
6.979745864868164 2.7272655963897705 -2.121399164199829
6.743486404418945 3.268056631088257 -2.121399164199829
6.609570026397705 3.5310544967651367 -2.121399164199829
6.465410232543945 3.788564443588257 -2.121399164199829
6.147226333618164 4.285595417022705 -2.121399164199829
5.599189281463623 4.980380535125732 -2.121399164199829
5.398720741271973 5.196982383728027 -2.121399164199829
5.189902305603027 5.405537128448486 -2.121399164199829
4.973027229309082 5.605702877044678 -2.121399164199829
4.748437404632568 5.797158241271973 -2.121399164199829
4.37451171875 6.292334079742432 -2.1694891452789307
4.123339653015137 6.459697246551514 -2.1694891452789307
7.121074199676514 1.2632616758346558 -2.2244889736175537
6.999599456787109 1.8196972608566284 -2.2244889736175537
6.517958641052246 2.255253791809082 -2.121399164199829
6.42410135269165 2.5101561546325684 -2.121399164199829
5.95071268081665 3.4869627952575684 -2.121399164199829
5.808798789978027 3.7185935974121094 -2.121399164199829
5.657870769500732 3.9444236755371094 -2.121399164199829
5.498164176940918 4.164150238037109 -2.121399164199829
5.153437614440918 4.583886623382568 -2.121399164199829
4.968945026397705 4.783261775970459 -2.121399164199829
4.776738166809082 4.975214958190918 -2.121399164199829
4.156943321228027 5.503612995147705 -2.121399164199829
3.93701171875 5.663036823272705 -2.121399164199829
3.7109668254852295 5.813671588897705 -2.121399164199829
3.558046817779541 6.090282917022705 -2.1694891452789307
6.476816177368164 1.6837890148162842 -2.2244889736175537
6.031142234802246 2.0868163108825684 -2.121399164199829
5.944306373596191 2.3226757049560547 -2.121399164199829
5.743085861206055 2.7832324504852295 -2.121399164199829
5.235282897949219 3.649833917617798 -2.121399164199829
5.087519645690918 3.8531248569488525 -2.121399164199829
4.931845664978027 4.050468444824219 -2.121399164199829
4.768535137176514 4.241523265838623 -2.121399164199829
4.419980525970459 4.603613376617432 -2.121399164199829
4.044003963470459 4.937158107757568 -2.121399164199829
3.642949104309082 5.240077972412109 -2.121399164199829
3.4337987899780273 5.379453182220459 -2.121399164199829
3.219306468963623 5.510488033294678 -2.121399164199829
6.162890434265137 0.8445116877555847 -2.2244889736175537
6.124863147735596 1.086513638496399 -2.2244889736175537
5.617128849029541 1.9435741901397705 -2.125572443008423
5.525371074676514 2.158994197845459 -2.121399164199829
5.436083793640137 2.374882698059082 -2.121399164199829
5.338349342346191 2.587089776992798 -2.121399164199829
5.118222713470459 2.999160051345825 -2.121399164199829
4.996152400970459 3.198369026184082 -2.121399164199829
4.866328239440918 3.3926172256469727 -2.121399164199829
4.584287166595459 3.765019416809082 -2.121399164199829
4.273798942565918 4.114091873168945 -2.121399164199829
3.9367969036102295 4.437646389007568 -2.121399164199829
3.7590136528015137 4.589209079742432 -2.121399164199829
3.575390577316284 4.733681678771973 -2.121399164199829
3.1918065547943115 5.000341892242432 -2.121399164199829
2.992441415786743 5.122138500213623 -2.121399164199829
5.715527057647705 1.0139062404632568 -2.2244889736175537
5.55615234375 1.680605411529541 -2.2244889736175537
5.485673904418945 1.8980859518051147 -2.2244889736175537
5.072793006896973 2.2161619663238525 -2.121399164199829
4.981591701507568 2.414189338684082 -2.121399164199829
4.882666110992432 2.608476400375366 -2.121399164199829
4.662246227264404 2.984619140625 -2.121399164199829
4.541122913360596 3.165888547897339 -2.121399164199829
4.412939548492432 3.342236280441284 -2.121399164199829
4.277910232543945 3.5133984088897705 -2.121399164199829
4.136240005493164 3.679130792617798 -2.121399164199829
3.8339061737060547 3.9932126998901367 -2.121399164199829
3.5077831745147705 4.282519340515137 -2.121399164199829
3.336435556411743 4.417324066162109 -2.121399164199829
3.1599316596984863 4.545263767242432 -2.121399164199829
2.978505849838257 4.666162014007568 -2.121399164199829
2.7924609184265137 4.779824256896973 -2.121399164199829
5.384863376617432 0.7379003763198853 -2.2244889736175537
5.351650238037109 0.94935542345047 -2.2244889736175537
5.310117244720459 1.159335970878601 -2.2244889736175537
5.260341644287109 1.3675390481948853 -2.2244889736175537
5.202412128448486 1.5736035108566284 -2.2244889736175537
4.946933269500732 1.932958960533142 -2.173725128173828
4.749824047088623 2.075078010559082 -2.121399164199829
4.664443492889404 2.260498046875 -2.121399164199829
4.472079753875732 2.620537042617798 -2.121399164199829
4.365429401397705 2.7945897579193115 -2.121399164199829
4.252001762390137 2.9643163681030273 -2.121399164199829
3.734267473220825 3.594716787338257 -2.121399164199829
3.5898241996765137 3.7389745712280273 -2.121399164199829
3.4398045539855957 3.877431631088257 -2.121399164199829
3.2844629287719727 4.009872913360596 -2.121399164199829
2.6146678924560547 4.475527286529541 -2.121399164199829
5.05691385269165 0.6929589509963989 -2.2244889736175537
5.025722503662109 0.8915429711341858 -2.2244889736175537
4.986718654632568 1.0887500047683716 -2.2244889736175537
4.939980506896973 1.2842479944229126 -2.2244889736175537
4.885576248168945 1.4777734279632568 -2.2244889736175537
4.823593616485596 1.6690038442611694 -2.2244889736175537
4.754140377044678 1.8576366901397705 -2.2244889736175537
4.460556507110596 1.9487011432647705 -2.121399164199829
4.38552713394165 2.1253318786621094 -2.1239006519317627
4.293378829956055 2.2936620712280273 -2.121399164199829
4.099570274353027 2.624394416809082 -2.121399164199829
3.506845712661743 3.37579083442688 -2.121399164199829
3.3712010383605957 3.5112695693969727 -2.121399164199829
3.2303123474121094 3.641288995742798 -2.121399164199829
3.0844433307647705 3.7656543254852295 -2.121399164199829
2.778564453125 3.996699094772339 -2.121399164199829
2.4554295539855957 4.202959060668945 -2.121399164199829
4.761200904846191 0.6524413824081421 -2.2244889736175537
4.731845378875732 0.8393945097923279 -2.2244889736175537
4.651103496551514 1.2091503143310547 -2.2244889736175537
4.59988260269165 1.3913671970367432 -2.2244889736175537
4.476142406463623 1.7490038871765137 -2.2244889736175537
4.40380859375 1.9239062070846558 -2.2244889736175537
4.124218463897705 1.9986815452575684 -2.121399164199829
4.042314529418945 2.1595311164855957 -2.121399164199829
3.9541308879852295 2.3170409202575684 -2.121399164199829
3.6534178256988525 2.7670116424560547 -2.121399164199829
3.5416502952575684 2.9087109565734863 -2.121399164199829
3.42437481880188 3.045908212661743 -2.121399164199829
3.301767587661743 3.178398370742798 -2.121399164199829
3.174072265625 3.3059375286102295 -2.121399164199829
3.0414257049560547 3.428349494934082 -2.121399164199829
2.904062509536743 3.5454587936401367 -2.121399164199829
2.6160740852355957 3.7629880905151367 -2.121399164199829
4.430556774139404 0.9673241972923279 -2.2244889736175537
4.389042854309082 1.141025424003601 -2.2244889736175537
4.340693473815918 1.3129687309265137 -2.2244889736175537
4.28564453125 1.4828612804412842 -2.2244889736175537
4.223925590515137 1.6504589319229126 -2.2244889736175537
4.155654430389404 1.8155077695846558 -2.2244889736175537
3.9885740280151367 1.9329687356948853 -2.1741394996643066
3.8145506381988525 2.0378613471984863 -2.121399164199829
3.731337785720825 2.1864843368530273 -2.121399164199829
3.6423633098602295 2.3317089080810547 -2.121399164199829
3.5477147102355957 2.473330020904541 -2.121399164199829
3.44756817817688 2.6111035346984863 -2.121399164199829
3.34209942817688 2.7448339462280273 -2.121399164199829
3.2314159870147705 2.8742871284484863 -2.121399164199829
3.1157422065734863 2.9993066787719727 -2.121399164199829
2.870058536529541 3.235185384750366 -2.121399164199829
2.4686717987060547 3.550956964492798 -2.121399164199829
2.3269433975219727 3.6454198360443115 -2.121399164199829
2.1816015243530273 3.7342185974121094 -2.121399164199829
4.189248085021973 0.9146386384963989 -2.2244889736175537
4.149980545043945 1.0788671970367432 -2.2244889736175537
4.104287147521973 1.241455078125 -2.2244889736175537
3.929335832595825 1.7166112661361694 -2.2244889736175537
3.6331541538238525 1.9409373998641968 -2.136904001235962
3.354482412338257 2.338613271713257 -2.121399164199829
2.832080125808716 2.9497461318969727 -2.121399164199829
2.713749885559082 3.058974504470825 -2.121399164199829
2.591181516647339 3.163456916809082 -2.121399164199829
2.4646191596984863 3.2630271911621094 -2.121399164199829
2.200185537338257 3.4468650817871094 -2.121399164199829
3.9990527629852295 0.7094140648841858 -2.2244889736175537
3.8875389099121094 1.1758886575698853 -2.2244889736175537
3.8382225036621094 1.3280565738677979 -2.2244889736175537
3.782949209213257 1.4781543016433716 -2.2244889736175537
3.6548924446105957 1.7712597846984863 -2.2244889736175537
3.58233380317688 1.9137988090515137 -2.2244889736175537
3.341796875 1.9582128524780273 -2.121399164199829
3.262099504470825 2.0882811546325684 -2.121399164199829
3.1773338317871094 2.2151074409484863 -2.121399164199829
3.087646484375 2.338505744934082 -2.121399164199829
2.9931836128234863 2.458261728286743 -2.121399164199829
2.8940625190734863 2.57421875 -2.121399164199829
2.790468692779541 2.686171770095825 -2.121399164199829
2.5704100131988525 2.8974413871765137 -2.121399164199829
2.454345703125 2.99639630317688 -2.121399164199829
2.2109375 3.180243968963623 -2.121399164199829
2.0840039253234863 3.264833927154541 -2.121399164199829
3.7642576694488525 0.8218457102775574 -2.2244889736175537
3.641123056411743 1.259863257408142 -2.2244889736175537
3.5887107849121094 1.402246117591858 -2.2244889736175537
3.530693292617798 1.54248046875 -2.2244889736175537
3.467226505279541 1.6803125143051147 -2.2244889736175537
3.298710823059082 1.9329687356948853 -2.2073984146118164
2.9291112422943115 2.2184178829193115 -2.121399164199829
2.839482307434082 2.33203125 -2.121399164199829
2.328310489654541 2.842529296875 -2.121399164199829
2.214589834213257 2.932001829147339 -2.121399164199829
1.8535058498382568 3.1726269721984863 -2.121399164199829
3.6769237518310547 8.509404182434082 1.6345219612121582
3.272451162338257 8.509404182434082 1.607565999031067
2.9199512004852295 8.626073837280273 1.6057871580123901
2.533388614654541 8.62606430053711 1.5852482318878174
2.1559667587280273 8.626073837280273 1.5677967071533203
1.7620214223861694 8.509413719177246 1.532266616821289
1.4033300876617432 8.509404182434082 1.5207035541534424
0.6749804615974426 8.216435432434082 1.4536579847335815
0.33900389075279236 8.217509269714355 1.4502036571502686
0.0040527344681322575 8.217499732971191 1.4489701986312866
-0.3427050709724426 8.510488510131836 1.5018454790115356
-1.4140233993530273 8.627138137817383 1.5414981842041016
-1.7775390148162842 8.627138137817383 1.553153157234192
-2.144101619720459 8.614580154418945 1.5653247833251953
-2.490351438522339 8.510468482971191 1.5635547637939453
4.095917701721191 8.509404182434082 1.4467438459396362
2.919931650161743 8.626073837280273 1.3951215744018555
1.4033300876617432 8.509404182434082 1.3212021589279175
0.6749804615974426 8.216435432434082 1.262951135635376
0.33900389075279236 8.217509269714355 1.2599488496780396
0.0040527344681322575 8.217499732971191 1.2588779926300049
-0.690722644329071 8.510488510131836 1.3080472946166992
-1.4140233993530273 8.627138137817383 1.3392671346664429
-1.7775487899780273 8.627138137817383 1.3493940830230713
-2.8714842796325684 8.510458946228027 1.3759700059890747
-3.263251781463623 8.510458946228027 1.3963160514831543
4.095917701721191 8.509404182434082 1.2297877073287964
2.919931650161743 8.626073837280273 1.185905933380127
0.6749804615974426 8.216435432434082 1.0735548734664917
0.33900389075279236 8.217509269714355 1.0710031986236572
0.0040527344681322575 8.217499732971191 1.0700923204421997
-0.3427050709724426 8.510488510131836 1.1091423034667969
-0.690722644329071 8.510488510131836 1.1118879318237305
-1.4140233993530273 8.627138137817383 1.1384263038635254
-1.7775390148162842 8.627138137817383 1.1470341682434082
-2.144101619720459 8.614580154418945 1.1560227870941162
-2.490351438522339 8.510468482971191 1.154716968536377
-2.8714842796325684 8.510468482971191 1.1696248054504395
-3.263251781463623 8.510458946228027 1.186919093132019
3.6769237518310547 8.509404182434082 0.995411217212677
3.272451162338257 8.509404182434082 0.9789945483207703
2.1385936737060547 8.556562423706055 0.9470826387405396
1.7620214223861694 8.509413719177246 0.9331391453742981
1.049414038658142 8.509413719177246 0.920677900314331
0.6749804615974426 8.216435432434082 0.8852668404579163
0.33900389075279236 8.217509269714355 0.8831626772880554
-0.3427050709724426 8.510488510131836 0.9146131873130798
-0.6907324194908142 8.510488510131836 0.916877269744873
-1.3983203172683716 8.531347274780273 0.9283375144004822
-2.124951124191284 8.537627220153809 0.944756269454956
-2.490351438522339 8.510468482971191 0.9521949291229248
-2.8714842796325684 8.510458946228027 0.9644877314567566
-3.263251781463623 8.510458946228027 0.9787489175796509
4.087587833404541 8.49209976196289 0.7978245615959167
3.6769237518310547 8.509404182434082 0.7847175598144531
3.246816396713257 8.442733764648438 0.7657291889190674
1.3978124856948853 8.476005554199219 0.7272089719772339
0.6749902367591858 8.216435432434082 0.6978867650032043
0.33900389075279236 8.217509269714355 0.6962284445762634
0.0040429686196148396 8.217509269714355 0.6956364512443542
-0.3427050709724426 8.510488510131836 0.7210218906402588
-0.6907324194908142 8.510488510131836 0.7228068113327026
-1.041054606437683 8.510478019714355 0.7258076071739197
-2.490351438522339 8.510468482971191 0.7506477236747742
4.095917701721191 8.509404182434082 0.5856178402900696
2.4991209506988525 8.509413719177246 0.5499576926231384
1.7620214223861694 8.509413719177246 0.5388652086257935
1.4033300876617432 8.509404182434082 0.5347987413406372
1.0494238138198853 8.509413719177246 0.5316688418388367
0.6749804615974426 8.216435432434082 0.5112199187278748
-1.3949121236801147 8.510488510131836 0.534780740737915
-2.1181933879852295 8.510478019714355 0.5438392758369446
-2.490351438522339 8.510468482971191 0.5498689413070679
-3.263251781463623 8.510458946228027 0.5652033686637878
4.095917701721191 8.509404182434082 0.37238141894340515
3.6769237518310547 8.509404182434082 0.365519255399704
2.880449056625366 8.509404182434082 0.3542371988296509
2.053593635559082 8.216435432434082 0.3339488208293915
1.7013475894927979 8.216435432434082 0.33085525035858154
1.3550000190734863 8.216435432434082 0.32835859060287476
-0.3308984339237213 8.217499732971191 0.3242884874343872
-1.005214810371399 8.217499732971191 0.3264411985874176
-1.6931347846984863 8.217490196228027 0.3308323621749878
4.375644207000732 8.216415405273438 0.1572447121143341
3.95489239692688 8.216415405273438 0.15403182804584503
3.159785032272339 8.216415405273438 0.1486997902393341
2.7812793254852295 8.216425895690918 0.14652633666992188
2.4130663871765137 8.216435432434082 0.14465224742889404
1.7013475894927979 8.216435432434082 0.1417347639799118
0.6749804615974426 8.216435432434082 0.1392582654953003
0.0040527344681322575 8.217499732971191 0.1388096660375595
-0.3308984339237213 8.217499732971191 0.13892196118831635
-1.693154215812683 8.217499732971191 0.14172500371932983
-2.0452733039855957 8.217499732971191 0.14304427802562714
-2.404609203338623 8.217490196228027 0.14462997019290924
-2.7726268768310547 8.217480659484863 0.14649765193462372
-3.1508984565734863 8.217480659484863 0.1486634761095047
4.375644207000732 8.216415405273438 -0.05240920931100845
3.95489239692688 8.216415405273438 -0.051339566707611084
2.7812793254852295 8.216425895690918 -0.048837583512067795
2.053593635559082 8.216435432434082 -0.04768234118819237
1.7013475894927979 8.216415405273438 -0.04724075272679329
1.3550000190734863 8.216435432434082 -0.04688430577516556
0.33900389075279236 8.217499732971191 -0.04630431905388832
-1.3468945026397705 8.217499732971191 -0.04688247665762901
-2.404618978500366 8.217490196228027 -0.048204801976680756
2.4991209506988525 8.509413719177246 -0.249724879860878
2.1268162727355957 8.509404182434082 -0.2469758540391922
1.4033300876617432 8.509404182434082 -0.24284148216247559
0.6990624666213989 8.509413719177246 -0.24041259288787842
0.35109373927116394 8.510488510131836 -0.23983901739120483
-0.3427050709724426 8.510488510131836 -0.23982924222946167
-0.6907324194908142 8.510488510131836 -0.24042296409606934
-1.041054606437683 8.510478019714355 -0.2414208948612213
-1.753505825996399 8.510468482971191 -0.24466857314109802
-2.8714842796325684 8.510468482971191 -0.252907395362854
-3.263251781463623 8.510458946228027 -0.25664687156677246
4.531679630279541 8.509394645690918 -0.48892804980278015
3.6769237518310547 8.509404182434082 -0.47011199593544006
2.880449056625366 8.509404182434082 -0.4556013345718384
2.4770214557647705 8.43416976928711 -0.4457971155643463
2.1080174446105957 8.434160232543945 -0.44088926911354065
0.6990624666213989 8.509413719177246 -0.43300125002861023
-0.3427050709724426 8.510488510131836 -0.43195173144340515
-0.6907324194908142 8.510488510131836 -0.4330209195613861
-1.3949121236801147 8.510488510131836 -0.4373606741428375
-1.753505825996399 8.510468482971191 -0.4406677186489105
-2.1181933879852295 8.510478019714355 -0.4447689652442932
4.531679630279541 8.509394645690918 -0.7068870663642883
3.6769237518310547 8.509404182434082 -0.6796833872795105
3.272451162338257 8.509404182434082 -0.6684722900390625
2.880449056625366 8.509404182434082 -0.6587039232254028
2.4915428161621094 8.483613014221191 -0.6483076214790344
1.7566698789596558 8.483622550964355 -0.6352317929267883
1.3950097560882568 8.458954811096191 -0.6286060810089111
1.049414038658142 8.509413719177246 -0.6286540031433105
0.6990624666213989 8.509404182434082 -0.6260291934013367
0.35109373927116394 8.510488510131836 -0.6245370507240295
0.004179687239229679 8.510488510131836 -0.6240061521530151
-0.3427050709724426 8.510488510131836 -0.6245118379592896
-1.041054606437683 8.510478019714355 -0.6286570429801941
-1.753505825996399 8.510468482971191 -0.6371131539344788
-2.1181933879852295 8.510478019714355 -0.6430424451828003
-2.490351438522339 8.510468482971191 -0.6501721143722534
-3.263251781463623 8.510458946228027 -0.6683034896850586
4.531679630279541 8.509394645690918 -0.9255694150924683
2.880449056625366 8.509404182434082 -0.8624802827835083
2.4915428161621094 8.483613014221191 -0.8488677740097046
0.6990624666213989 8.509413719177246 -0.819697380065918
0.20926757156848907 5.072714805603027 -0.4874200224876404
-0.377685546875 4.653368949890137 -0.4482145607471466
-0.5730664134025574 4.684687614440918 -0.45310500264167786
-0.7858593463897705 4.794648170471191 -0.4664515554904938
-1.0760058164596558 5.222285270690918 -0.5118967890739441
-2.1181933879852295 8.510478019714355 -0.8419732451438904
-2.490351438522339 8.510468482971191 -0.8513096570968628
-2.8714842796325684 8.510458946228027 -0.8623014688491821
-3.263251781463623 8.510458946228027 -0.8750518560409546
4.095917701721191 8.509404182434082 -1.1217973232269287
3.6769237518310547 8.509404182434082 -1.101125955581665
2.4915428161621094 8.483613014221191 -1.0502945184707642
2.120361328125 8.483622550964355 -1.0387322902679443
1.3950097560882568 8.458964347839355 -1.0183771848678589
1.0494238138198853 8.509413719177246 -1.0184544324874878
0.18395507335662842 4.459091663360596 -0.5301278829574585
-0.17940428853034973 4.455420017242432 -0.5296704173088074
-0.5454003810882568 4.458535194396973 -0.5335586667060852
-0.7304003834724426 4.456240177154541 -0.5363998413085938
-0.9206933379173279 4.468505859375 -0.5419453382492065
-1.133212924003601 4.553027153015137 -0.5573348999023438
-1.4621288776397705 4.996669769287109 -0.6184226870536804
-3.263251781463623 8.510458946228027 -1.0826905965805054
4.531679630279541 8.509394645690918 -1.3660047054290771
4.095917701721191 8.509404182434082 -1.3380930423736572
3.6769237518310547 8.509404182434082 -1.3134337663650513
3.272451162338257 8.509404182434082 -1.2917742729187012
2.880449056625366 8.509404182434082 -1.2728946208953857
2.4915525913238525 8.483613014221191 -1.2528047561645508
2.120361328125 8.483622550964355 -1.2390133142471313
1.7566698789596558 8.483622550964355 -1.2275363206863403
0.36247068643569946 4.412294864654541 -0.6272799372673035
0.0021777343936264515 4.415546894073486 -0.6256353855133057
-0.7249413728713989 4.422939300537109 -0.6350449919700623
-0.9113574028015137 4.423202991485596 -0.6398846507072449
-1.0981347560882568 4.412060260772705 -0.6442121863365173
-1.5193066596984863 4.502910137176514 -0.6733521819114685
-3.263251781463623 8.510458946228027 -1.2914464473724365
4.531679630279541 8.509394645690918 -1.588225245475769
4.095917701721191 8.509404182434082 -1.555774211883545
3.6769237518310547 8.509404182434082 -1.5271035432815552
2.880449056625366 8.509404182434082 -1.479966402053833
2.4915525913238525 8.483613014221191 -1.456610083580017
2.120361328125 8.483622550964355 -1.4405746459960938
1.12451171875 5.430634498596191 -0.9136157035827637
0.5379492044448853 4.362080097198486 -0.7240479588508606
0.3587988317012787 4.367499828338623 -0.7219224572181702
0.18062499165534973 4.378320217132568 -0.7218940854072571
-0.17583008110523224 4.366542816162109 -0.7199235558509827
-0.3542870879173279 4.365185260772705 -0.7214810252189636
-0.535693347454071 4.379228591918945 -0.726807713508606
-0.71937495470047 4.389003753662109 -0.7326878309249878
-0.9013183116912842 4.374472618103027 -0.7357838153839111
-1.2788183689117432 4.370204925537109 -0.750134289264679
-1.4791698455810547 4.383944988250732 -0.7622088193893433
3.272451162338257 8.509394645690918 -1.7136307954788208
1.5509179830551147 5.280810356140137 -1.0345072746276855
1.217187523841858 4.869960784912109 -0.9435195922851562
0.9014843702316284 4.353515625 -0.835649847984314
0.5327734351158142 4.320029258728027 -0.8181483149528503
-0.3506445288658142 4.320361137390137 -0.8147291541099548
-1.0739257335662842 4.314814567565918 -0.835758626461029
-1.2662206888198853 4.327167987823486 -0.8474448919296265
-1.462255835533142 4.333827972412109 -0.8597080707550049
-3.263251781463623 8.510458946228027 -1.713196039199829
4.531679630279541 8.509394645690918 -2.0378811359405518
4.095917701721191 8.509404182434082 -1.9962427616119385
3.6769237518310547 8.509404182434082 -1.9594552516937256
3.272451162338257 8.509404182434082 -1.927140474319458
1.58181631565094 4.672988414764404 -1.0428330898284912
1.0811620950698853 4.325722694396973 -0.942497968673706
0.7077929377555847 4.291903972625732 -0.9194746017456055
0.1768456995487213 4.286845684051514 -0.9069244265556335
-0.17255859076976776 4.285204887390137 -0.9065406322479248
-0.5234179496765137 4.278876781463623 -0.9112101793289185
-0.7015331983566284 4.280087947845459 -0.916793942451477
-0.8804394602775574 4.273124694824219 -0.922225296497345
-1.2507226467132568 4.274179458618164 -0.9413633346557617
-1.67919921875 4.379306316375732 -0.9914149045944214
4.307207107543945 8.087890625 -2.153582811355591
3.9742283821105957 8.256591796875 -2.153582811355591
3.6346678733825684 8.411611557006836 -2.153582811355591
1.4601855278015137 4.313652038574219 -1.070315957069397
1.2563085556030273 4.277705192565918 -1.0478168725967407
0.7033593654632568 4.265029430389404 -1.0159159898757935
0.5258495807647705 4.263935565948486 -1.0097135305404663
0.002099609235301614 4.261181354522705 -1.0014727115631104
-0.8762499690055847 4.252773284912109 -1.0204946994781494
-1.0579687356948853 4.250702857971191 -1.0294914245605469
-1.431787133216858 4.243505954742432 -1.0525574684143066
-1.652382731437683 4.309384822845459 -1.0847047567367554
3.9096875190734863 7.341484069824219 -2.153582811355591
3.6074512004852295 7.494618892669678 -2.153582811355591
2.985546827316284 7.763339519500732 -2.153582811355591
1.2495410442352295 4.254619121551514 -1.1481231451034546
0.5249121189117432 4.256357192993164 -1.1103923320770264
0.34957030415534973 4.255166053771973 -1.1054503917694092
0.0020800780039280653 4.252695083618164 -1.1010949611663818
-0.3450097441673279 4.250869274139404 -1.1042448282241821
-0.5198730230331421 4.25 -1.1086018085479736
-0.8739550709724426 4.241660118103027 -1.1213102340698242
-1.2377734184265137 4.229941368103027 -1.141133189201355
3.5758397579193115 6.714540958404541 -2.153582811355591
3.299394369125366 6.85460901260376 -2.153582811355591
2.730585813522339 7.100390434265137 -2.153582811355591
1.436914086341858 4.244951248168945 -1.2686944007873535
0.8808104991912842 4.253808498382568 -1.2297654151916504
0.7008984088897705 4.250097751617432 -1.219421148300171
0.3489062488079071 4.247197151184082 -1.2063993215560913
-0.17085936665534973 4.243007659912109 -1.2021366357803345
-0.87220698595047 4.233154296875 -1.2235455513000488
-1.234277367591858 4.217988014221191 -1.2441543340682983
-1.422451138496399 4.21584939956665 -1.2595806121826172
3.036738157272339 6.308935642242432 -2.153582811355591
2.777285099029541 6.42736291885376 -2.153582811355591
1.6701855659484863 4.343007564544678 -1.4311878681182861
1.2256542444229126 4.173300743103027 -1.3378313779830933
0.8796972632408142 4.248369216918945 -1.334428071975708
0.699755847454071 4.243134498596191 -1.3227260112762451
0.3483007848262787 4.239638805389404 -1.3084152936935425
0.0020898436196148396 4.238808631896973 -1.3037644624710083
-0.34401366114616394 4.238710880279541 -1.3080228567123413
-1.0500195026397705 4.218769550323486 -1.3371859788894653
-1.4184179306030273 4.20388650894165 -1.3646399974822998
-1.620644450187683 4.226601600646973 -1.39230215549469
2.747187376022339 5.707353591918945 -2.1054930686950684
2.512460947036743 5.814501762390137 -2.1054930686950684
1.656777262687683 4.308183670043945 -1.5343073606491089
1.413183569908142 4.174853324890137 -1.4650927782058716
1.0431346893310547 4.173583984375 -1.4299945831298828
0.8782910108566284 4.241591930389404 -1.4398339986801147
0.5229882597923279 4.240810394287109 -1.4203448295593262
0.34833982586860657 4.240243911743164 -1.4142266511917114
0.17491210997104645 4.239941120147705 -1.4105796813964844
0.0020800780039280653 4.240077972412109 -1.4094218015670776
-0.17073242366313934 4.239941120147705 -1.4105210304260254
-0.3441210985183716 4.239980220794678 -1.4140267372131348
-0.6946679353713989 4.238261699676514 -1.4276199340820312
